# .PCD v0.7 - Point Cloud Data file format
VERSION 0.7
FIELDS x y z rgb
SIZE 4 4 4 4
TYPE F F F F
COUNT 1 1 1 1
WIDTH 1038
HEIGHT 1
VIEWPOINT 0 0 0 1 0 0 0
POINTS 1038
DATA ascii
-1.199206 -0.0452739 2.3553839 5.3426816e-39
0.53564298 0.0145933 1.9120263 1.0965912e-38
0.93553609 0.0299554 1.8071119 1.2624351e-38
0.83617729 0.0284185 1.8269918 1.2810182e-38
0.68279421 0.0312526 1.8685883 1.2531788e-38
-0.1123681 0.0139552 1.9184294 1.0236618e-38
0.78762919 0.039664201 1.8368505 1.2072616e-38
-0.2191778 0.015659301 1.8826741 1.2636215e-38
0.28560209 0.035638601 1.8926833 5.3456075e-39
-0.1338923 0.025715901 1.8556679 8.1096365e-39
0.20993561 0.036641899 1.896782 4.6980661e-39
0.96563649 0.052453902 1.7970511 1.2717264e-38
0.2013533 0.0467817 1.9039432 4.0534142e-39
-0.1388151 0.0397432 1.9551541 8.1071072e-39
-0.078470297 0.046033699 1.8951172 1.0880549e-38
-0.0287893 0.046919599 1.8929608 4.4214708e-39
0.59791672 0.065883502 1.8971142 6.0806194e-39
0.68100268 0.066414297 1.8740354 8.2907908e-39
-0.3310816 0.049689598 1.9654784 4.0523281e-39
0.65948242 0.070952602 1.875681 1.2436706e-38
0.82419378 0.073616304 1.8371197 1.1519447e-38
-0.81141561 0.056856502 2.1282501 9.5815674e-39
-0.36660379 0.072732799 1.9851315 7.9245782e-39
-0.071981996 0.069869302 1.8965081 2.8574045e-39
1.0458336 0.086124003 1.766818 1.1152469e-38
-0.31219599 0.071930803 1.9477675 3.1332627e-39
0.27470219 0.080887802 1.8868347 4.6062264e-39
0.78580379 0.087461904 1.8328013 7.4635524e-39
0.4337469 0.093302101 1.7740333 3.9630192e-39
0.2933459 0.080722101 1.2933019 5.9884504e-39
0.6680724 0.1032319 1.8737037 6.7274363e-39
0.78940922 0.1131857 1.8379021 6.9114675e-39
0.37465769 0.112149 1.8016869 5.0683102e-39
0.201786 0.089108199 1.0414391 5.2523343e-39
0.55549049 0.1258454 1.9036399 9.2145575e-39
0.59903377 0.1244169 1.8821675 7.4610315e-39
0.6697076 0.1238959 1.8617795 7.0007722e-39
0.87268972 0.1223106 1.7993917 7.4653615e-39
1.027105 0.1222404 1.7694114 1.1980071e-38
0.69140089 0.12905359 1.8581786 1.1608392e-38
0.79392618 0.1281691 1.8281693 1.2533595e-38
0.93032318 0.1290455 1.8033094 1.2165176e-38
0.98844022 0.12834281 1.7773546 1.0691491e-38
1.0099518 0.12672541 1.7747127 1.1336503e-38
-1.3298043 0.1413586 2.4028955 2.2931839e-38
0.5530495 0.13775501 1.8844213 7.9241775e-39
0.90821868 0.13249069 1.8032374 1.1426893e-38
0.53820199 0.1376064 1.9032328 7.5528726e-39
0.81874138 0.1381048 1.8216869 5.7132774e-39
0.89778769 0.13759349 1.8070632 6.5426779e-39
0.7607854 0.1444149 1.8506184 4.4214526e-39
0.83743489 0.1430182 1.8181942 5.0679024e-39
0.55682182 0.1532799 1.8919976 1.2438867e-38
0.59654969 0.15382209 1.9029204 1.2255934e-38
0.97438318 0.151287 1.7749248 1.1151748e-38
0.68966192 0.1669212 1.884724 1.3806646e-38
0.94285512 0.1629771 1.7871763 7.0958629e-39
0.7490254 0.1681859 1.8588279 1.4627744e-38
-1.1188009 0.3981024 5.659152 6.081732e-39
0.65107888 0.18175711 1.8671944 7.9219998e-39
0.98589683 0.17324109 1.7697225 7.9252551e-39
-4.809927 1.0891418 16.260021 4.9775144e-39
0.54531848 0.1888756 1.8890849 1.2531067e-38
0.85912663 0.1805639 1.8109063 6.3582979e-39
0.1231538 0.1366152 0.92896491 4.0544777e-39
-0.2004175 0.19663151 1.8234153 1.7499859e-38
-1.4658747 0.3399041 3.5947282 6.5415975e-39
0.2765249 0.1523402 1.1266643 5.0668486e-39
-0.30719 0.22805861 2.1758993 5.5271065e-39
1.0064317 0.19236021 1.7687041 1.1334334e-38
-0.63558602 0.2215493 1.9045562 4.1459433e-39
0.2498787 0.157373 1.1177154 3.7775419e-39
-1.1571096 0.4502314 5.1105881 5.1579554e-39
-0.30719 0.22805861 2.1758993 5.5271065e-39
-0.15301 0.21465459 1.801163 6.6327142e-39
-0.13267571 0.2154412 1.8126155 1.1056337e-38
-0.059413601 0.2142473 1.8025827 4.238848e-39
-0.0428137 0.2137827 1.798153 5.6203461e-39
-0.22340401 0.24510621 2.1867189 9.3978992e-39
-0.5018993 0.2868979 2.7570734 5.618565e-39
0.2048225 0.20995089 1.723896 5.5292533e-39
-1.3384283 0.47821081 5.0976744 9.4904536e-39
-2.7617042 0.76507068 8.6733856 4.8835125e-39
-2.2380712 0.75697619 8.5980577 3.5942058e-39
0.58438081 0.2197721 1.8768693 1.1058114e-38
0.67628402 0.217979 1.8619618 5.2533853e-39
-0.87030113 0.24919771 1.9778032 7.8320113e-39
-0.25328529 0.21781351 1.8345238 6.7249182e-39
0.66374862 0.22170331 1.8726799 1.262289e-38
-0.50685942 0.37714741 3.569376 1.0136186e-38
-2.0229025 0.55175269 5.3260722 8.8450786e-39
0.0031822999 0.2605058 2.1190245 5.2515748e-39
0.65910423 0.23047329 1.8639662 7.091163e-39
0.74761307 0.2296396 1.8488353 5.621086e-39
0.25282809 0.2118886 1.4723856 9.0294783e-39
0.61770111 0.23958381 1.8646601 7.4621035e-39
-0.56414092 0.29887679 2.2437499 7.9220223e-39
-2.3868699 0.8777597 8.6444855 9.3053449e-39
0.4476642 0.23039789 1.6637081 9.2138723e-39
0.75382519 0.2397498 1.84114 9.4882423e-39
0.96682352 0.2310037 1.7669859 7.1848019e-39
-0.0120728 0.25362691 1.7880085 1.0594999e-38
0.90233791 0.236 1.7964509 6.9071361e-39
1.0121943 0.2326829 1.771818 4.3296199e-39
0.22961161 0.2474786 1.7189254 7.1855516e-39
0.2729716 0.2463403 1.7110591 3.7793342e-39
0.45312151 0.24173389 1.6734711 4.6998471e-39
0.620031 0.2527096 1.8739854 1.1792413e-38
0.80298418 0.2474492 1.8245844 1.2255927e-38
-0.33741209 0.27810609 1.8652672 5.7104314e-39
-2.135612 0.94564748 8.6459312 1.0871949e-38
0.4170872 0.2472029 1.6756071 6.0806432e-39
0.15706301 0.259431 1.7360392 7.5543215e-39
0.58740509 0.26617691 1.8819021 7.0007708e-39
0.63255632 0.2619687 1.8626026 1.3176442e-38
0.8754791 0.25449941 1.798384 7.3717225e-39
0.3401241 0.2567625 1.6968801 8.7507067e-39
-1.5209645 0.64144832 5.1632304 5.8962449e-39
0.29714939 0.2665965 1.7060194 5.4363346e-39
0.61847132 0.2762599 1.8805573 7.3695477e-39
0.64403558 0.27369741 1.8592391 8.3858773e-39
0.78758931 0.27056581 1.8251927 8.5706329e-39
0.4266215 0.26825511 1.6759713 6.0802761e-39
-0.0616915 0.2354361 1.1858946 4.9767942e-39
-0.53741348 0.3176609 1.8640679 5.2519419e-39
0.72122192 0.28812939 1.842617 8.0178108e-39
0.61348939 0.30150789 1.8703059 1.3268253e-38
0.66490102 0.30280769 1.8467978 7.5550096e-39
0.569372 0.31871301 1.8790568 1.0964491e-38
0.72351032 0.30957359 1.8505392 7.1858725e-39
0.82001311 0.3043699 1.8160017 7.276992e-39
0.91397381 0.2968505 1.7856035 5.6207258e-39
0.2734578 0.30884379 1.6638114 7.5557901e-39
0.9749102 0.29947981 1.7761087 6.1738968e-39
0.68806273 0.32410899 1.8523564 1.3175337e-38
1.0174447 0.29954711 1.7569724 5.7111166e-39
0.65268677 0.32680169 1.8547255 1.2253761e-38
0.8336823 0.31862521 1.8117938 1.2162643e-38
0.86260772 0.31492981 1.8049251 1.1519804e-38
0.88990808 0.31367141 1.7990873 1.1518722e-38
0.7602157 0.34101969 1.8236443 1.3175347e-38
0.84230268 0.33789521 1.8079947 8.1985895e-39
0.61189568 0.35859811 1.865845 6.3586524e-39
0.71835142 0.3585833 1.8449892 1.2070451e-38
0.86110967 0.34804261 1.794434 1.1427253e-38
0.44442391 0.35105541 1.6575441 3.0428383e-39
0.61875439 0.3713142 1.85864 6.3575678e-39
0.63236493 0.36866921 1.8644701 5.8973127e-39
0.29297999 0.36797169 1.6920984 5.3463166e-39
0.32191259 0.36356279 1.6893671 5.7140243e-39
0.64879191 0.37965259 1.860828 6.7220175e-39
0.90159053 0.3579714 1.7797465 6.7278007e-39
0.31178299 0.37326771 1.6868339 4.0544693e-39
0.34405339 0.37061301 1.6749794 4.2377928e-39
0.57026231 0.3844558 1.8404684 6.815302e-39
0.77150673 0.3765195 1.8365202 6.7263545e-39
0.80796307 0.37171391 1.8117783 6.2650093e-39
0.87816089 0.37022829 1.7965233 6.4483173e-39
0.88807738 0.36821929 1.7852873 5.9895014e-39
0.63813162 0.39537621 1.8601359 1.1976821e-38
0.94602042 0.36909249 1.7846179 7.46463e-39
0.65516198 0.39934599 1.8490903 9.302063e-39
0.079602897 0.34773171 1.3103015 7.4610497e-39
0.60965222 0.40824321 1.8706247 1.3082785e-38
0.95818818 0.37652519 1.7729239 1.2992766e-38
0.0048211999 0.34622359 1.2583758 5.4341962e-39
-0.6517477 0.593005 2.5550673 5.5267506e-39
0.59999168 0.41565311 1.8616536 6.8160194e-39
0.62303001 0.4166775 1.8507831 1.1240339e-38
0.76406533 0.4034732 1.8156509 8.7521333e-39
0.2723957 0.41355091 1.6851285 3.961922e-39
0.42263681 0.3999767 1.6593308 4.6987808e-39
0.8221277 0.40204349 1.7969408 1.1702752e-38
1.0002551 0.3915582 1.7559353 1.1426886e-38
0.60214502 0.43462181 1.8707577 1.0041066e-38
0.69499272 0.42807221 1.8425535 1.1884978e-38
0.84812248 0.41074291 1.8083915 8.6588516e-39
0.93557721 0.40174499 1.7803905 7.0951329e-39
0.0209147 0.36743969 1.2696903 1.1148173e-38
0.44449699 0.4134835 1.6529838 6.3561287e-39
0.58272892 0.44341549 1.868222 8.474459e-39
0.6644758 0.4350915 1.844931 1.0594968e-38
0.88102639 0.41094679 1.7916195 8.2911509e-39
-0.16360401 0.38995159 1.2687136 6.4486957e-39
0.1281572 0.38439649 1.3428528 1.0871948e-38
0.8382889 0.42534199 1.8012538 1.1056654e-38
-0.41362211 0.41553649 1.3182544 5.3419852e-39
0.280559 0.4455412 1.6981972 7.1873621e-39
0.59644139 0.45330089 1.848774 3.5002138e-39
0.72082382 0.44245821 1.8294119 1.2161567e-38
0.053812899 0.38859871 1.2916209 8.567784e-39
0.40735829 0.43693081 1.6654289 5.7111292e-39
0.641303 0.4578101 1.8547659 1.0227623e-38
0.81605393 0.43633091 1.7947304 1.1239608e-38
0.1198236 0.39642709 1.3393342 6.539455e-39
0.6623494 0.45754129 1.8455302 6.5412346e-39
0.68386543 0.456168 1.8419167 1.0963388e-38
0.0233867 0.39442459 1.2667514 1.1425479e-38
0.56334013 0.4751209 1.8770655 1.1607664e-38
0.77668041 0.44874939 1.809936 1.0505298e-38
-0.1858298 0.40818059 1.2535439 7.2770074e-39
0.83737242 0.44808429 1.7993869 8.6556062e-39
0.65837342 0.47247881 1.8426023 1.2622525e-38
0.68336737 0.47125989 1.8406616 6.264275e-39
0.98912919 0.4365429 1.7643745 8.5655784e-39
0.049790699 0.40723151 1.2859731 6.7235099e-39
0.1415886 0.41398221 1.347026 9.488276e-39
-0.19884481 0.38646251 1.0359694 9.9488926e-39
0.019411501 0.41057119 1.2691606 7.8291036e-39
0.74495119 0.4754419 1.8295093 1.2344152e-38
0.81018817 0.46569791 1.7929336 4.6980353e-39
0.0576903 0.41871631 1.2929748 7.1844895e-39
0.097325101 0.42276531 1.3229759 7.8294623e-39
0.1362714 0.4250153 1.3450685 1.1701348e-38
0.34400091 0.4805401 1.678627 4.6991297e-39
0.65789902 0.48760241 1.8413671 5.3441277e-39
0.9841615 0.4429886 1.7255687 1.133469e-38
1.0014015 0.4479591 1.7495921 1.1702754e-38
0.57601237 0.50375068 1.8638575 7.0021945e-39
0.7594406 0.48279089 1.8189343 7.1829985e-39
0.8036781 0.4774352 1.8025324 1.2251225e-38
0.8225854 0.47849581 1.7986922 7.3666625e-39
0.86020797 0.4748266 1.7975311 3.8689879e-39
1.0047358 0.4577195 1.7519222 1.0321257e-38
0.65742397 0.50269902 1.8401293 8.1078443e-39
0.7750389 0.48950091 1.8061974 1.2621825e-38
0.89593869 0.47343969 1.7818036 3.6845952e-39
0.9199236 0.4689818 1.7645932 3.9608318e-39
0.97152263 0.4639962 1.7573996 4.4210995e-39
0.0001762 0.4300842 1.2521534 7.6440004e-39
0.68087047 0.50460893 1.8331436 6.4504669e-39
0.82185662 0.48781511 1.7985129 1.2623992e-38
-0.0581907 0.4914282 1.4500961 6.1710466e-39
0.94458938 0.47641271 1.7663146 6.1713675e-39
0.77303988 0.50322032 1.815336 8.2922411e-39
0.88191807 0.48889479 1.7836434 1.1058104e-38
0.96456039 0.48199549 1.7736908 1.2348835e-38
0.86809403 0.49618289 1.7861599 7.9212852e-39
0.93980992 0.48620769 1.7666165 1.3912195e-38
-0.0036603999 0.44837961 1.2498049 9.8556138e-39
1.1268665 0.49127391 1.834618 3.1324934e-39
1.144545 0.49467391 1.8643833 3.4076398e-39
0.93289101 0.49310359 1.7642006 6.8178243e-39
0.6159519 0.54216522 1.8055207 8.0134696e-39
0.29112539 0.55087483 1.6562985 8.6596055e-39
0.8144871 0.54464871 1.7552532 7.2773465e-39
0.41145441 0.5704813 1.6258563 4.4239693e-39
0.47258511 0.57055777 1.6078088 5.8076366e-39
0.9764896 0.54852301 1.7126234 3.2214394e-39
1.058603 0.53391242 1.6859684 2.9455728e-39
0.50064242 0.576491 1.6258121 6.5415737e-39
0.98800367 0.54970962 1.7017659 2.311587e-38
0.1237195 0.54042357 1.3020436 6.910757e-39
1.0165071 0.55891079 1.6956999 3.7738887e-39
-0.0014900001 0.53617263 1.217093 9.858513e-39
0.16046759 0.5482949 1.3251961 7.1869838e-39
1.0551378 0.55309492 1.6815099 1.9246193e-38
0.95372772 -0.74306577 1.846243 5.9869636e-39
0.66797447 -0.79941308 1.9237289 1.1977893e-38
0.84482038 -0.75468981 1.8824708 3.3150952e-39
0.77693319 -0.75763381 1.8978481 5.5252764e-39
0.036782801 -0.71574211 1.9195318 2.8566576e-39
0.87045473 -0.55034941 1.8695447 5.342683e-39
0.84199089 -0.52711213 1.8536648 1.1519447e-38
0.84827882 -0.487941 1.8675284 1.0689329e-38
-0.54022378 -0.72652018 2.0611691 1.0041789e-38
-0.093638398 -0.58102763 1.8464566 2.9481232e-39
-0.061285801 -0.57784349 1.8647147 8.5695833e-39
0.75908238 -0.46456411 1.8927993 5.8976687e-39
-0.31734949 -0.60443211 1.9485835 1.8428588e-39
-0.0394927 -0.4851225 1.8474765 9.7670531e-39
0.75748771 -0.38068241 1.9064608 9.0294362e-39
0.89180571 -0.35711351 1.8472548 5.067908e-39
0.0142383 -0.44616961 1.8722453 2.8573835e-39
0.62932843 -0.3780193 1.911391 5.4359576e-39
0.87121642 -0.32988191 1.8482577 1.0873366e-38
-0.083499201 -0.3403382 1.9201206 1.7513905e-39
-0.039471999 -0.33431989 1.9431967 7.0033408e-39
0.59185141 -0.27960989 1.9143047 5.7121872e-39
-0.3104842 -0.33460939 1.9763558 7.5557999e-39
0.8258872 -0.197391 1.8610936 6.7256203e-39
0.9410851 -0.1882716 1.8198237 4.975341e-39
0.061575901 -0.25961599 1.9307578 3.1336117e-39
0.44948849 -0.1982839 1.7751552 2.7655844e-39
0.60937119 -0.2027469 1.9185176 5.8969526e-39
0.67071021 -0.19576231 1.8771104 5.3444865e-39
0.8457557 -0.1742231 1.8385425 1.2164088e-38
-0.19671179 -0.24227241 1.918071 3.4098412e-39
0.9212901 -0.159225 1.8216975 1.0966628e-38
-0.1827988 -0.243325 1.9396286 1.1255814e-38
0.58698797 -0.1814207 1.916949 1.2716187e-38
-0.16152149 -0.2218589 1.9531363 4.7920708e-39
-0.7010178 -0.25398621 2.0844693 5.5270967e-39
0.41125429 -0.1434046 1.7175708 8.8465303e-39
-0.2254833 -0.1840557 1.9121552 1.1346932e-38
0.1067513 -0.1662682 1.9438493 5.988079e-39
0.60767817 -0.13646629 1.9134278 9.3975041e-39
0.91919923 -0.1079363 1.8169858 1.0598209e-38
0.94635707 -0.1066776 1.8108042 8.3840626e-39
-0.1937483 -0.169232 1.9320554 4.2504073e-39
0.41699681 -0.1244341 1.7660078 2.1198157e-39
0.81173038 -0.089463703 1.8527955 5.621079e-39
-0.1926399 -0.13027629 1.903872 1.5683356e-38
0.62148452 -0.090871103 1.8899515 5.5296092e-39
0.57790017 -0.070322998 1.8886932 1.1703116e-38
-0.1049403 0.048537999 1.8239635 9.1230668e-39
-0.29784191 0.068563998 1.9731948 2.8570346e-39
-0.0943432 0.069746003 1.8985878 2.6733678e-39
0.8722195 0.092798904 1.8165625 6.9121849e-39
0.81389862 0.1030128 1.8353292 7.0033016e-39
0.5358873 0.1353732 1.8926651 7.1844502e-39
0.6781826 0.14494181 1.8683224 5.7121788e-39
0.77369511 0.1438244 1.8372324 3.685684e-39
0.82360351 0.14282531 1.8125744 4.0551938e-39
0.9056316 0.1429078 1.8144062 4.606927e-39
0.67943591 0.1658885 1.8640792 1.114886e-38
0.64530319 0.1767035 1.8688006 7.1873257e-39
0.76912248 0.1755757 1.8548485 1.0413099e-38
0.2048225 0.20995089 1.723896 5.5292533e-39
0.44709021 0.20385081 1.6661217 5.6214363e-39
0.73290479 0.2142567 1.8200032 1.0488678e-38
0.44622749 0.25208279 1.663372 6.7259916e-39
0.63688248 0.2904245 1.8602372 1.1242141e-38
-0.35285369 0.32448849 1.8399616 5.8051199e-39
0.76655561 0.31140611 1.8248308 7.7390449e-39
0.27677631 0.3711715 1.678905 2.4889429e-39
0.9753828 0.3647078 1.7618105 7.0011225e-39
0.592556 0.4056226 1.8731695 7.2759186e-39
0.13752709 0.35467759 1.3466007 8.4744716e-39
0.069026299 0.36206231 1.3042966 1.077939e-38
0.30451509 0.41096589 1.6847175 4.608362e-39
0.60353643 0.4354389 1.8688128 9.9492317e-39
0.3063387 0.44013429 1.6819515 3.9633485e-39
0.0004549 0.3859688 1.2457658 8.8425324e-39
0.63491982 0.47534549 1.8618422 8.5684455e-39
0.15289751 0.45772669 1.4473717 8.0142151e-39
0.86460489 0.47264779 1.7895952 3.869355e-39
0.87170619 0.49179021 1.7876508 8.2911481e-39
0.30124179 0.55341482 1.6584728 8.6606831e-39
0.80861157 0.54651731 1.7617486 7.8308762e-39
1.0396385 0.55847508 1.6876589 2.311551e-38
1.0343549 -0.84652168 1.8386995 7.2748396e-39
1.001963 -0.84503567 1.841466 7.2755542e-39
0.95491171 -0.85541552 1.8514334 1.0687876e-38
0.9852255 -0.84816831 1.8486288 7.9201978e-39
1.0403271 -0.82628852 1.8299502 1.2439958e-38
0.94480741 -0.85595793 1.8581239 6.6330673e-39
0.92493641 -0.85179329 1.8658857 6.8145859e-39
0.9916994 -0.82674491 1.8405832 1.1978256e-38
1.0215577 -0.8155272 1.8310812 9.1194808e-39
1.2169672 -0.86013001 2.0305955 8.7466962e-39
0.80850828 -0.88462043 1.8945216 1.1239606e-38
0.87802249 -0.8608892 1.8735052 1.068788e-38
1.2249975 -0.84751922 2.0197923 2.1650455e-38
0.83690047 -0.87316692 1.8874761 7.1833656e-39
0.90049207 -0.84908402 1.8664283 7.0900868e-39
0.90761942 -0.8488481 1.8653001 6.9996932e-39
0.81655282 -0.86793917 1.8871891 1.0319095e-38
0.82908249 -0.86598837 1.8870213 1.1516915e-38
0.87206161 -0.8537941 1.8799371 4.695164e-39
0.92218548 -0.83399987 1.8574457 1.2070451e-38
1.0204294 -0.80639291 1.8425702 1.1793147e-38
1.2157385 -0.83795482 2.0228291 9.2065982e-39
0.68972808 -0.91110718 1.9304172 7.6450668e-39
0.74962199 -0.88839418 1.9050269 7.6447067e-39
0.83397043 -0.86240768 1.8867213 1.1332886e-38
0.9462989 -0.82181412 1.8496612 9.3038707e-39
1.2243223 -0.83247519 2.0193334 2.1835204e-38
0.67493647 -0.91432559 1.9360238 9.1201871e-39
0.7354008 -0.891675 1.910931 8.2893516e-39
0.85065812 -0.85885692 1.8938169 6.445446e-39
0.90753442 -0.83223939 1.8574842 1.243995e-38
0.92432702 -0.82814789 1.8568749 9.2123897e-39
0.75095183 -0.88563299 1.9120126 1.1332162e-38
0.61236882 -0.9251247 1.9427316 1.2807295e-38
0.71050793 -0.89225739 1.916714 7.7379785e-39
0.81945139 -0.86338401 1.8999436 7.3691848e-39
0.83538651 -0.85677719 1.8931731 4.3267276e-39
1.0225075 -0.7887764 1.8289198 7.9238187e-39
1.0448025 -0.78128588 1.8189265 7.9205789e-39
0.58711243 -0.93248677 1.9544742 1.2808011e-38
1.0040888 -0.79371548 1.8373219 1.1794586e-38
0.9190973 -0.81819022 1.8564823 1.1057743e-38
0.97862029 -0.79824537 1.839177 8.0142095e-39
0.53535259 -0.94711339 1.9774991 6.5387193e-39
0.64620382 -0.90721053 1.9394178 1.0134719e-38
0.71285403 -0.88328809 1.9162126 1.0779708e-38
0.81736231 -0.84330189 1.8709861 9.5804366e-39
0.92620438 -0.81312507 1.8563417 1.1519084e-38
0.50244337 -0.95232397 1.9782773 1.317535e-38
0.90882838 -0.81738901 1.8636324 7.3699247e-39
0.9312427 -0.80669278 1.8489873 8.1074911e-39
1.2178471 -0.8071934 2.0048478 1.5197846e-38
0.45753139 -0.97052532 2.01244 9.1198452e-39
0.77109182 -0.86457312 1.9119585 8.1975161e-39
0.97798902 -0.79306728 1.8452783 8.0145724e-39
1.1155331 -1.4986125 3.6535544 1.0319107e-38
1.2313852 -0.80978668 2.0131376 1.1692279e-38
0.47336149 -0.96015781 1.9970329 1.2347044e-38
0.70727372 -0.87640607 1.9145342 8.1978819e-39
0.76583558 -0.86243838 1.9116468 1.0963014e-38
0.87155581 -0.8232308 1.8709739 1.1332896e-38
0.92713761 -0.79651099 1.835583 9.2145561e-39
1.0306647 -0.77118957 1.8264648 1.124214e-38
0.40918499 -0.97395068 2.0073431 1.1241773e-38
0.49943909 -0.94333732 1.9770304 9.2109506e-39
0.85352671 -0.82734019 1.8777828 8.2904432e-39
0.4311223 -0.96226239 1.9944897 5.2501329e-39
0.74640018 -0.86349791 1.9173836 6.8152992e-39
0.91315091 -0.80568469 1.862516 8.0153039e-39
0.93034941 -0.79877877 1.8549923 7.9241817e-39
0.55900192 -0.91318971 1.9470971 1.1978623e-38
0.70967078 -0.86634219 1.9147635 1.0872267e-38
0.48589641 -0.93859541 1.9822395 8.845059e-39
0.56541449 -0.91192549 1.9567149 9.2127611e-39
0.63784277 -0.87986708 1.9223399 1.050421e-38
0.67387348 -0.87926543 1.9333574 6.8156551e-39
0.74835128 -0.85139972 1.9022923 1.2253753e-38
0.80156487 -0.83484292 1.8908266 8.4748275e-39
0.81248581 -0.83032739 1.883687 1.0872623e-38
0.82428807 -0.830401 1.8913292 7.5532299e-39
0.97558391 -0.7811147 1.8441838 8.5670273e-39
0.80650812 -0.83131552 1.8906195 7.5535943e-39
0.27988869 -0.99881971 2.0396438 9.3027945e-39
0.39205709 -0.96271938 2.0109062 1.3451221e-38
0.40893671 -0.95826751 2.0060618 6.9067731e-39
0.72771478 -0.85549557 1.9150938 9.0258293e-39
0.30901039 -0.98477989 2.0312202 9.3035232e-39
0.51788318 -0.91793549 1.9722567 1.0042878e-38
0.72122419 -0.85648692 1.9220428 1.1607303e-38
0.83054942 -0.76594877 1.7427735 8.8439772e-39
0.39484671 -0.95631868 2.011111 1.4005838e-38
0.62483829 -0.8813017 1.9418784 1.1149944e-38
0.7379539 -0.84846461 1.9151253 1.3083142e-38
0.7849676 -0.82994258 1.896421 7.8305553e-39
0.67610002 -0.8644079 1.9324671 1.2254473e-38
0.68679768 -0.86207807 1.9339851 5.6171105e-39
0.82454258 -0.81347632 1.8832121 7.6461542e-39
0.30895811 -0.97236192 2.019978 1.2346324e-38
0.54192692 -0.90365893 1.96732 8.8432471e-39
0.55765402 -0.89790088 1.9623609 7.8316217e-39
0.58703262 -0.88980192 1.9599645 7.5550376e-39
0.785447 -0.83010048 1.9105372 1.0319826e-38
0.97431719 -0.76427579 1.8434999 8.1067779e-39
0.36851111 -0.94399208 1.9944862 9.2134799e-39
0.4053598 -0.9378683 1.9959452 9.6726434e-39
0.23519661 -0.99294251 2.0515604 1.2069742e-38
0.42534441 -0.9339146 2.0004754 9.5819051e-39
0.64493722 -0.86319989 1.9360563 1.1703481e-38
0.6664511 -0.85981983 1.9387431 7.4610357e-39
0.95776361 -0.7630465 1.8443257 7.9220279e-39
0.19296239 -1.0042809 2.0642664 9.3053154e-39
0.2176494 -0.9906987 2.0439622 8.1078513e-39
0.25297669 -0.98439628 2.0484898 1.1793873e-38
0.34346831 -0.95589328 2.0218925 9.3049595e-39
0.47190291 -0.91532481 1.9859159 9.1216487e-39
0.48738629 -0.90438932 1.971754 8.937256e-39
0.50421828 -0.90216798 1.97577 9.4886249e-39
0.50982302 -0.90062582 1.9776 9.6737378e-39
0.53697109 -0.89531779 1.9738964 1.1518005e-38
0.65014488 -0.85680681 1.936134 7.2770046e-39
0.2942329 -0.96442759 2.0331745 7.7361681e-39
0.38875619 -0.93453783 2.0078578 9.6748196e-39
0.6405167 -0.85797501 1.9427603 5.8955093e-39
0.3829532 -0.93159509 2.0061209 9.8595724e-39
0.41414139 -0.92556918 2.0057719 1.2256287e-38
0.50128418 -0.8962658 1.9747714 1.225629e-38
0.612894 -0.86517167 1.9545946 8.1067737e-39
1.0311404 -0.73003709 1.8270173 9.7637699e-39
0.048927002 -1.0353473 2.1056585 8.8414548e-39
0.1899562 -0.99101502 2.0620053 7.2784619e-39
0.2291016 -0.97535062 2.0490456 7.6447095e-39
0.25288311 -0.97138143 2.047384 1.2439221e-38
0.2824176 -0.9620533 2.0385478 8.6566894e-39
0.42222369 -0.91848952 1.9985549 9.8581291e-39
0.53676432 -0.8850736 1.9739774 7.8316259e-39
0.59913552 -0.86460662 1.9519626 7.8323504e-39
0.32597771 -0.94418007 2.0249429 9.3985957e-39
0.54693162 -0.8768003 1.9678931 1.1885693e-38
0.61319458 -0.85289037 1.938381 1.2438504e-38
0.70443571 -0.82673532 1.9187914 8.7496165e-39
0.94208062 -0.75333369 1.8572927 5.1561295e-39
0.96829861 -0.74389088 1.8490283 6.0777313e-39
1.1140367 -0.60419792 1.5656255 1.2437405e-38
0.0501252 -1.0204341 2.0938599 1.2069737e-38
0.3230882 -0.9416858 2.0330284 1.1888587e-38
0.457349 -0.89460742 1.9812453 1.1795671e-38
0.5890007 -0.86092907 1.9572667 1.197681e-38
0.63353431 -0.8397032 1.9338857 1.2530349e-38
0.9634431 -0.74316448 1.8487992 5.1561267e-39
0.056251999 -1.0186292 2.0953319 8.0134822e-39
0.1679991 -0.9846161 2.0742199 8.0145808e-39
0.3113853 -0.93867308 2.0292666 9.2134856e-39
0.382727 -0.91592717 2.0048444 9.5822667e-39
0.55963379 -0.86354798 1.9609909 1.2347027e-38
0.94933528 -0.74298912 1.8500446 6.721656e-39
-0.053041499 -0.96566713 1.9189637 5.343102e-39
0.1892817 -0.97751051 2.0717573 9.7634041e-39
0.28227431 -0.94594318 2.0372007 1.2345592e-38
0.2997762 -0.9406848 2.0340531 1.1243219e-38
0.3402186 -0.92740083 2.0187178 7.4642839e-39
0.40527779 -0.90840149 2.0013273 9.2123911e-39
0.48477721 -0.88237947 1.9786932 8.6621082e-39
0.49602509 -0.88051492 1.9816622 1.0413817e-38
0.84873712 -0.77163231 1.8785167 8.3840808e-39
0.2558713 -0.94793171 2.0369604 9.5797317e-39
0.57952422 -0.84844428 1.9480433 1.216265e-38
0.1159308 -0.98963648 2.0805926 9.212038e-39
0.32294571 -0.92890942 2.0319681 7.4642909e-39
0.35120979 -0.91102618 2.0046642 7.8323532e-39
0.1070609 -0.98590767 2.0764048 1.0873722e-38
0.14308579 -0.98043478 2.0831797 1.1978976e-38
0.57937467 -0.84251952 1.9475873 8.5681063e-39
0.8773576 -0.75777328 1.8801333 5.9858944e-39
0.94885153 -0.73232651 1.8492907 1.1238883e-38
1.1867905 -0.66013318 1.7708006 6.8156187e-39
0.78565532 -0.7794413 1.8951581 8.5677476e-39
0.89295733 -0.74731332 1.865263 1.2531421e-38
1.0205264 -0.7059148 1.8222646 8.4748303e-39
0.086516097 -0.99159777 2.0997441 6.5423304e-39
0.1069051 -0.9779672 2.0768342 6.6330883e-39
0.1237231 -0.98178458 2.0961516 8.65886e-39
0.1567563 -0.960199 2.0574746 8.4751932e-39
0.305475 -0.92841172 2.0441434 9.1238067e-39
0.42167211 -0.8862676 1.9968975 8.7528647e-39
0.43592149 -0.88443083 2.0010118 7.2791724e-39
0.5554952 -0.84273702 1.9509189 1.207009e-38
0.56649929 -0.8419053 1.9525927 1.2347036e-38
0.70361012 -0.8009299 1.916863 1.1886063e-38
1.0580868 -0.6914041 1.8106331 9.0265678e-39
0.46817049 -0.86833549 1.9824889 1.1149584e-38
0.1313647 -0.9679299 2.0760462 1.1977545e-38
0.1439137 -0.96409249 2.0706325 9.0265607e-39
0.28789181 -0.91837192 2.0284989 6.8145733e-39
0.33422849 -0.90782177 2.0254867 1.1427979e-38
0.41389361 -0.88734859 2.0123885 1.078188e-38
0.70554018 -0.79786593 1.9237736 1.2255922e-38
0.84843361 -0.75428331 1.8752285 6.3561077e-39
-0.0869902 -0.96277511 1.9617091 4.6980913e-39
0.4601956 -0.86597359 1.9889634 7.4613902e-39
0.29065689 -0.91953081 2.0482016 9.6748028e-39
0.35113239 -0.89263391 2.0121005 8.8457876e-39
0.42194149 -0.87730861 2.004878 6.7252755e-39
0.4414168 -0.87179118 2.0012953 1.3175714e-38
0.47016671 -0.85575843 1.9736781 8.1071324e-39
0.308108 -0.90363109 2.0254655 1.1151752e-38
0.41329709 -0.87455481 2.0025873 6.8156621e-39
1.2282238 -0.71708089 2.0058813 1.6393167e-38
0.31680191 -0.90033108 2.0278654 8.7546724e-39
0.61313027 -0.81181139 1.9430311 9.3949831e-39
1.003697 -0.69417989 1.8292173 8.9358127e-39
1.0104516 -0.69293481 1.8282883 1.2071176e-38
0.2404104 -0.91888541 2.049449 8.1074883e-39
0.39357331 -0.87373853 2.0053589 7.6457801e-39
0.59510469 -0.81340313 1.9484878 1.2254844e-38
0.63061142 -0.8042618 1.9396808 9.1212843e-39
0.65016723 -0.79819977 1.9358242 8.2897244e-39
0.85482621 -0.73439473 1.8665439 1.0870822e-38
0.3708505 -0.87480259 2.0082364 9.3020644e-39
0.38525039 -0.87436759 2.0120285 7.0908211e-39
0.72643173 -0.77544701 1.9164966 1.1241057e-38
0.017059799 -0.90900558 1.9162372 6.4490978e-39
0.030598801 -0.91594517 1.9464047 1.0872315e-38
0.28462201 -0.89850199 2.0362 9.1194794e-39
0.4839237 -0.83981818 1.9753526 8.1074995e-39
0.82902408 -0.73991919 1.8823349 8.1957071e-39
-0.0288378 -0.91792929 1.9314762 1.0319144e-38
0.1407868 -0.93622428 2.0681062 9.7641216e-39
0.1655056 -0.92752689 2.0582459 1.1978619e-38
0.31375551 -0.88766241 2.0259438 1.1796754e-38
0.34536451 -0.8786763 2.0173812 8.2922467e-39
0.74929053 -0.7592867 1.9035422 6.6319911e-39
1.0180179 -0.6806041 1.8221914 9.949966e-39
1.1926858 -0.7097733 1.9914907 1.4700994e-39
-1.6963007 -1.9369806 3.8370683 9.9481457e-39
0.1156343 -0.94032568 2.0785296 1.0596057e-38
0.58113807 -0.80390072 1.9450341 1.1518001e-38
0.69472891 -0.77032858 1.9139911 1.0319465e-38
0.81142908 -0.73582369 1.8768901 9.2113135e-39
1.1968971 -0.70591837 1.9897864 1.4833041e-38
-0.76751542 -1.2005066 2.3376081 6.7249112e-39
0.3048971 -0.8801747 2.0235939 8.3840864e-39
0.32232401 -0.87759948 2.0186186 7.7390729e-39
0.039910302 -0.89549732 1.9406973 3.3165918e-39
0.31067881 -0.87735021 2.0343883 8.6581426e-39
0.3307586 -0.86636829 2.0121679 1.1886062e-38
0.69179499 -0.76321381 1.9125282 7.0022184e-39
1.0545537 -0.66162819 1.8211451 1.3085331e-38
0.44431981 -0.83357948 1.9881324 8.7514214e-39
0.63558161 -0.77935022 1.9365155 7.3706421e-39
0.6573686 -0.7660743 1.9081107 1.1332528e-38
-0.61522222 -1.1301994 2.2694507 1.1425445e-38
0.42029509 -0.83775192 1.9961643 1.1978983e-38
0.56259459 -0.79469031 1.9485614 8.4755548e-39
0.81589538 -0.72141749 1.8758887 6.3561301e-39
0.92025232 -0.69334549 1.8538108 9.1191207e-39
1.1892154 -0.69022202 1.9840585 3.6802638e-39
0.20859671 -0.55325872 1.0935446 8.56777e-39
0.36455649 -0.85098922 2.0155973 9.3035092e-39
1.0157801 -0.66313821 1.825356 9.4889892e-39
0.2010131 -0.89556521 2.0615599 1.1701673e-38
0.54780561 -0.79454881 1.9627613 8.5688322e-39
0.62266338 -0.7798894 1.9583713 8.0163661e-39
0.6643979 -0.76258731 1.9314581 8.8428912e-39
-0.95358461 -1.209583 2.3430345 9.9495932e-39
0.080546401 -0.86216849 1.911166 1.022803e-38
0.0940331 -0.86180741 1.918855 9.1216613e-39
0.29021221 -0.86291569 2.0258455 1.2623625e-38
0.42870519 -0.82284957 1.9861424 1.2071175e-38
0.49435449 -0.8076762 1.9774308 8.660316e-39
0.6050877 -0.77601057 1.9478667 1.1516925e-38
0.71618563 -0.74134898 1.9069085 7.6461346e-39
0.77858222 -0.7240544 1.8886425 1.1795672e-38
0.099662401 -0.86024767 1.9204402 9.5819206e-39
0.41133541 -0.8277095 1.9934413 9.4893424e-39
0.95284659 -0.67519093 1.8511884 9.2109422e-39
1.0161929 -0.65137029 1.8210987 7.9202216e-39
-0.62996203 -1.1178 2.2903845 6.1720906e-39
0.2163316 -0.87390238 2.0468247 7.6443522e-39
0.4398922 -0.81319159 1.988039 1.188606e-38
0.4591077 -0.80791873 1.9843765 1.1701675e-38
0.91947728 -0.67846048 1.8521647 8.9358057e-39
0.41700929 -0.81664741 1.9940528 8.4741114e-39
0.61021101 -0.76383781 1.9476401 1.2437784e-38
0.74884248 -0.72058833 1.9018621 6.4497691e-39
0.34186649 -0.83350229 2.013829 9.0276355e-39
0.367553 -0.8282913 2.0126252 9.027644e-39
0.1694551 -0.84429657 1.9416479 1.0962673e-38
0.64964861 -0.74505329 1.9287888 9.9503107e-39
0.1545352 -0.8521446 1.9517099 1.179351e-38
0.350449 -0.8270545 2.0158002 1.1794225e-38
0.38189539 -0.8170135 2.0056489 1.1886062e-38
1.0032552 -0.64405888 1.8318254 6.3539595e-39
-0.7283563 -1.1229607 2.315901 8.0142053e-39
0.31890389 -0.83251488 2.0241816 1.2624353e-38
0.34134251 -0.82171643 2.0144405 8.1053177e-39
0.98729211 -0.64038688 1.8264863 4.1441412e-39
0.3787685 -0.80885577 2.0041416 8.5666714e-39
0.54963452 -0.7600317 1.9517857 1.1516913e-38
0.56210482 -0.75946939 1.9584675 8.5648497e-39
0.98030251 -0.64414078 1.8385302 5.0650199e-39
0.65863693 -0.72713488 1.9209764 7.0014883e-39
-0.2180021 -0.87023538 1.8891201 3.0406958e-39
-4.2470169 -4.4662981 10.298223 6.4486943e-39
0.084432296 -0.82280451 1.8994925 8.0156935e-39
0.46703821 -0.77890807 1.9847665 6.6305506e-39
1.0538441 -0.61452091 1.8042936 9.9485114e-39
0.60556471 -0.73481017 1.9392557 1.1242498e-38
0.6437217 -0.72535503 1.926748 9.3992977e-39
0.71383351 -0.71472859 1.9396921 1.0042157e-38
0.4008891 -0.791619 2.0019133 8.8454163e-39
0.46076751 -0.77565932 1.9909718 1.2806928e-38
-0.2348702 -0.86775368 1.8975886 3.6864337e-39
0.53011799 -0.74929339 1.9556558 9.7644887e-39
0.64352518 -0.72422528 1.9394047 5.7118299e-39
0.0601069 -0.80760872 1.8867663 5.8976967e-39
0.69781619 -0.70157868 1.9093205 1.142509e-38
-0.028351801 -0.80037969 1.8326222 2.4860856e-39
0.4009074 -0.78029501 2.0011904 7.7383569e-39
0.56584519 -0.7367183 1.9514008 9.3049413e-39
0.58675128 -0.73070508 1.9472688 8.4766394e-39
-0.89770931 -1.1244417 2.3570871 7.922374e-39
-0.87150282 -1.1263613 2.3762691 9.6733651e-39
0.080669098 -0.77985102 1.8355142 5.804778e-39
0.3418273 -0.79356933 2.0194247 6.7241867e-39
0.42977881 -0.76489878 1.9809482 1.0963742e-38
0.63918549 -0.71272463 1.9335716 1.2437425e-38
0.73100418 -0.6876502 1.899803 7.0918903e-39
0.2958256 -0.79839182 2.0252259 1.3176089e-38
0.31551921 -0.79349089 2.0210583 1.0134719e-38
0.35469469 -0.78379959 2.0086513 1.0781523e-38
0.3780553 -0.77690768 2.0036073 7.2788137e-39
0.38589719 -0.78259653 2.0151289 9.490427e-39
0.41520131 -0.76449931 1.9846263 1.207045e-38
0.8018328 -0.66456407 1.8854827 7.3702834e-39
-0.1611179 -0.83408409 1.8982944 3.8686473e-39
0.2474858 -0.81145591 2.042232 1.4189522e-38
-0.1418625 -0.82424039 1.8902528 6.7260168e-39
-0.0789086 -0.78900617 1.8167022 3.1293013e-39
0.30680081 -0.78218079 1.9983602 1.0963396e-38
0.72189891 -0.67823172 1.904862 1.2806209e-38
0.87849981 -0.63671029 1.8571968 1.1425076e-38
0.2246388 -0.80822271 2.045599 1.3360832e-38
0.3404882 -0.78008431 2.023232 1.3084233e-38
0.74854529 -0.67062253 1.902204 7.2770102e-39
0.88560641 -0.63305789 1.8566576 9.0279957e-39
0.76395613 -0.66444618 1.9010538 7.1873285e-39
1.2070354 -0.54396832 1.7495414 1.4088642e-38
0.1055367 -0.74441749 1.8053117 5.8987715e-39
0.2975111 -0.78237969 2.0256219 1.2346677e-38
0.3267574 -0.77315831 2.0146782 6.4472383e-39
0.52157438 -0.723499 1.9634758 6.1706612e-39
0.53755641 -0.72114521 1.9659451 8.475196e-39
0.65210629 -0.69108891 1.9319392 8.9354329e-39
0.70475709 -0.67490041 1.9099312 8.1064079e-39
-0.18832649 -0.82400048 1.9137135 3.5928116e-39
-1.08843 -1.1423477 2.4250729 7.7387072e-39
-0.99530822 -1.0994239 2.3428888 9.3056686e-39
-0.2453869 -0.83547342 1.9270931 5.9870028e-39
0.032963801 -0.75120348 1.8083766 2.3956823e-39
0.64256573 -0.6851452 1.9237684 9.1198326e-39
0.82521433 -0.63675457 1.8704829 9.303498e-39
0.9756611 -0.5983932 1.8303862 1.1977893e-38
-0.26535571 -0.83884978 1.9343764 6.727107e-39
-0.2099625 -0.82211721 1.9049248 4.9753873e-39
0.2356769 -0.78508937 2.0339375 1.3358662e-38
0.4273732 -0.73940289 1.9910972 1.2071175e-38
0.59641898 -0.69215679 1.9329722 8.8436114e-39
1.2016981 -0.61647081 2.0088038 5.5266959e-39
0.2959767 -0.76664549 2.0115495 7.2777234e-39
0.32147029 -0.76314282 2.0188596 5.7100306e-39
0.41481221 -0.73546737 1.9939196 5.8973183e-39
0.6416716 -0.67901403 1.9295058 1.1425438e-38
0.75935072 -0.64634109 1.8888487 1.1147402e-38
0.3032198 -0.76293379 2.0257201 1.1977184e-38
0.491328 -0.71104199 1.9649011 1.2162286e-38
1.1938971 -0.60286438 1.9963003 7.0922196e-39
0.42913061 -0.72899979 1.9953694 7.4621203e-39
0.64426452 -0.67219877 1.9292332 7.3695519e-39
0.96361423 -0.58712637 1.830725 1.1793869e-38
0.9796052 -0.58472252 1.8289565 1.1885699e-38
0.21896049 -0.77282667 2.0310047 4.9743055e-39
0.93059039 -0.59359622 1.8392797 9.12092e-39
0.65760148 -0.66363502 1.9289829 5.7111124e-39
0.94950032 -0.58507729 1.8312911 7.6461542e-39
-0.0132225 -0.70602059 1.7027001 2.5797106e-39
0.042210098 -0.7382974 1.8508143 4.8835265e-39
0.37955239 -0.73009121 2.0048141 5.7114809e-39
0.63007659 -0.66075319 1.9131387 7.2791626e-39
0.93035632 -0.58834678 1.8389117 1.1517646e-38
0.97067469 -0.57421929 1.8164132 8.5681035e-39
1.0533836 -0.55921358 1.8106338 9.8559529e-39
1.2358092 -0.59294963 2.0277004 1.7316913e-38
-0.9961282 -1.069545 2.3768537 8.0156388e-39
0.69890767 -0.6421417 1.9035378 1.1055937e-38
0.2214448 -0.76337212 2.040911 1.0226544e-38
0.32388079 -0.72949582 1.9962035 9.3971411e-39
0.84455961 -0.60499179 1.8641994 8.6610208e-39
1.2025499 -0.58331609 1.9751714 8.1967552e-39
0.23292591 -0.75430459 2.0379174 9.1191263e-39
0.5956521 -0.66448629 1.9302331 7.6479563e-39
0.9949832 -0.56366211 1.8198628 7.9216467e-39
1.1850684 -0.58444142 1.9808791 5.3444697e-39
0.6708653 -0.64245921 1.9094993 7.002217e-39
0.5633657 -0.66839331 1.9474097 1.1335051e-38
0.69703639 -0.63611448 1.91192 1.2348475e-38
0.70487732 -0.63539928 1.9124489 9.7648348e-39
1.0458049 -0.54828089 1.8128341 7.8294497e-39
0.3827889 -0.71078539 2.0007796 1.0133989e-38
0.75471419 -0.61854237 1.8937503 1.2992042e-38
0.82867759 -0.59824657 1.8677247 7.7376226e-39
1.1895709 -0.57522362 1.9870398 3.9618982e-39
-0.3910408 -0.79917318 1.8868465 2.1172891e-39
-0.1019735 -0.70591122 1.7223982 3.1321613e-39
0.1463057 -0.72969133 1.9504344 5.0679234e-39
0.5603407 -0.66265291 1.9480768 7.8291036e-39
0.66792423 -0.63763851 1.9242928 1.0781152e-38
-1.0091943 -1.0419925 2.3799326 4.9746292e-39
1.0120991 -0.55006433 1.8230371 7.1848146e-39
0.49157691 -0.67160839 1.967472 1.1333249e-38
0.510674 -0.6694892 1.9744359 8.9354525e-39
0.21244881 -0.73325658 2.0361123 8.5688266e-39
1.0515033 -0.5312832 1.8039519 1.2714738e-38
-1.2048031 -1.0760425 2.4460979 7.5564753e-39
0.25363919 -0.7196961 2.0229366 6.9078675e-39
0.37705579 -0.69224739 1.9965795 1.2070451e-38
0.43401501 -0.6776669 1.9823805 8.4773568e-39
-1.0766115 -1.0222856 2.3580999 7.6483066e-39
-0.3566002 -0.78690243 1.9537115 2.8555744e-39
0.50315052 -0.65395832 1.9565779 1.2347397e-38
0.60399652 -0.63327539 1.9375114 6.0820613e-39
-1.251375 -1.0692108 2.441247 6.9096346e-39
0.12633111 -0.7023828 1.9266497 4.2370964e-39
0.0043784999 -0.70190012 1.8580483 5.6207483e-39
1.0421777 -0.52005339 1.8045255 1.1332528e-38
0.1826867 -0.72410291 2.0408845 6.357928e-39
0.40592331 -0.67157698 1.9935992 7.5528754e-39
0.49562979 -0.64817291 1.9607284 9.120557e-39
0.59514362 -0.62698209 1.9398654 1.1978979e-38
0.74836862 -0.58954 1.8954293 9.1198368e-39
1.0510086 -0.51780403 1.8066019 8.6588586e-39
-0.39209741 -0.77316332 1.9286071 2.5800665e-39
0.22129171 -0.70669138 2.0285401 1.0964468e-38
0.69708991 -0.59582329 1.9039809 8.4748387e-39
0.82804459 -0.56620729 1.8664383 7.647585e-39
1.0109853 -0.52261299 1.8148102 1.1426164e-38
-0.89346027 -0.96777248 2.3501434 1.1056307e-38
0.27349871 -0.69250202 2.020684 8.936177e-39
0.36887661 -0.6732164 1.9996963 6.817118e-39
0.37965709 -0.67020518 1.9956717 6.4468852e-39
1.0017761 -0.52322382 1.8222978 1.2255563e-38
-1.1622555 -1.0218378 2.4012778 9.1198438e-39
0.0295262 -0.6911155 1.9021568 3.1318054e-39
0.48530471 -0.64155769 1.9648281 1.1149934e-38
0.83952272 -0.55794883 1.8652984 9.1230752e-39
0.86099237 -0.54962492 1.8443073 5.989137e-39
0.94184983 -0.53160489 1.8338865 9.3038721e-39
0.82623053 -0.55719161 1.8716043 4.9749795e-39
1.1921185 -0.53764629 1.9962606 3.6831477e-39
0.0169327 -0.68184018 1.8850666 4.6973486e-39
0.1263101 -0.67786622 1.9248126 4.7899142e-39
0.299757 -0.67657679 2.0173354 1.1518366e-38
0.31407601 -0.67227912 2.0131378 8.1993266e-39
0.3979075 -0.65230572 1.9860756 7.1822768e-39
0.4888697 -0.63321531 1.9633423 7.5546761e-39
0.61028957 -0.60335481 1.9292243 9.2127583e-39
0.76741761 -0.57079959 1.8979259 1.1149573e-38
0.40389439 -0.6472674 1.9857697 1.197717e-38
0.7363897 -0.57354599 1.899738 1.0228708e-38
1.0547489 -0.49854371 1.8076395 8.8432527e-39
-0.90730947 -0.90095538 2.151803 8.4762764e-39
-0.0080383001 -0.67549229 1.8716497 6.0788425e-39
0.059996899 -0.67434192 1.9013312 4.4218379e-39
0.70011532 -0.58640701 1.9386189 1.1149221e-38
-0.88052708 -0.92723328 2.3058641 8.3833409e-39
-0.5366416 -0.79578549 2.0357652 5.1612079e-39
-0.1503212 -0.70114732 1.9008389 4.8824546e-39
0.3966985 -0.6476652 1.9895756 8.2904362e-39
0.8307395 -0.54587609 1.8707705 1.1703475e-38
0.081101596 -0.66336763 1.9052173 7.1877209e-39
0.44180039 -0.63099992 1.980381 6.6330757e-39
1.0031273 -0.50180483 1.813751 8.3833563e-39
0.060001999 -0.66743553 1.9069954 8.013499e-39
0.3535085 -0.6454708 1.9974507 7.2788221e-39
0.6099025 -0.5890469 1.9281712 1.1702758e-38
0.7036795 -0.57020861 1.9053612 6.5412402e-39
1.1945128 -0.5178616 1.9782882 8.4747939e-39
-0.086040802 -0.67900831 1.8935658 6.3554266e-39
0.14129969 -0.66441518 1.9505523 7.2795479e-39
0.30936509 -0.65337998 2.0081882 1.0041807e-38
0.37133521 -0.63727582 1.9983115 1.1978613e-38
0.42917401 -0.62371731 1.9788773 9.3971509e-39
-1.0035501 -0.9428764 2.3783176 6.818553e-39
0.34191549 -0.63895398 2.0038791 8.3833605e-39
0.70255321 -0.5658313 1.925294 1.0779707e-38
0.86653543 -0.52045828 1.8576412 1.0780078e-38
1.2156582 -0.51010638 2.0015244 1.0312928e-38
1.218652 -0.50862581 1.9840037 1.6947765e-38
-0.0806676 -0.66783279 1.8966595 8.3844634e-39
0.32224801 -0.6403206 2.004962 8.1060548e-39
1.0114458 -0.4867194 1.8120193 1.1241775e-38
-1.0115623 -0.9304496 2.3673816 1.179602e-38
1.0268543 -0.4803057 1.8032472 8.9361728e-39
-1.1526158 -0.96987653 2.4426165 6.0806236e-39
0.6024698 -0.57451087 1.9338075 4.6054851e-39
1.2135807 -0.49637279 1.978642 1.3446494e-38
0.0366727 -0.64557582 1.8967476 2.5800875e-39
0.59700549 -0.57199019 1.9328864 9.2156394e-39
1.0597885 -0.46810901 1.7983692 1.1610195e-38
1.1913179 -0.4983893 1.9779482 7.4627971e-39
-1.0011007 -0.91749418 2.3678892 8.5659357e-39
-0.2360802 -0.69312513 1.9378941 5.6203839e-39
-0.27593109 -0.7402935 2.1272848 8.2933439e-39
0.022057701 -0.63058633 1.8661058 4.2381641e-39
0.028388999 -0.63729692 1.8864566 6.7260168e-39
1.0550923 -0.46652481 1.8039385 9.0258433e-39
-1.5402296 -1.024092 2.5263512 1.1887152e-38
0.2042706 -0.33232921 0.84296852 9.2116737e-39
0.63046509 -0.55495107 1.9289186 7.6454298e-39
0.82445318 -0.51145113 1.8683443 1.1703475e-38
0.33565161 -0.61380172 2.0002904 9.5822723e-39
0.87624222 -0.49905589 1.8606216 7.738703e-39
-0.2384562 -0.67171538 1.9228247 8.6606929e-39
0.121878 -0.61053061 1.8884226 4.3292808e-39
1.043256 -0.45826709 1.8057665 9.119834e-39
0.33847761 -0.60775501 2.0003901 1.2348123e-38
0.5259921 -0.56481791 1.9431959 7.7412351e-39
0.6636768 -0.53675872 1.9093792 8.661025e-39
0.94848561 -0.47348261 1.829055 9.1180403e-39
-1.3628201 -0.95943928 2.4703195 8.1056863e-39
-0.60275239 -0.76411718 2.1070569 9.305307e-39
1.0599986 -0.4442398 1.7958355 6.0791831e-39
-1.3639472 -0.9462769 2.4431252 5.3416068e-39
0.022119099 -0.60542548 1.8576361 5.5267618e-39
0.1201516 -0.59709162 1.8895633 4.8824714e-39
0.80558062 -0.4974525 1.8736355 1.1703475e-38
-1.1908202 -0.9083578 2.4094987 5.708946e-39
0.34723181 -0.5900839 2.0005124 8.2926139e-39
0.35892561 -0.58656567 1.9924392 9.0290985e-39
-0.819197 -0.82767302 2.3221312 7.0014925e-39
0.29382461 -0.55887163 1.8576018 8.7521655e-39
-1.0385588 -0.86370981 2.3674624 8.1996755e-39
0.1153221 -0.58786517 1.8907619 7.8323826e-39
0.25667629 -0.553563 1.8435167 9.1231172e-39
0.36938319 -0.57690412 1.9990418 6.7263629e-39
-0.82867169 -0.81586272 2.3139975 1.1886049e-38
0.37904221 -0.57253009 1.9995927 6.9118374e-39
0.72123998 -0.49909931 1.8907179 8.8450548e-39
0.97749388 -0.44652259 1.8183609 7.460314e-39
-1.5984479 -0.96609098 2.5103393 9.0279971e-39
0.0118098 -0.58236128 1.854856 6.3561553e-39
0.0324324 -0.58391029 1.86482 7.4632287e-39
0.4205384 -0.55968678 1.9831247 7.8305399e-39
0.84653437 -0.4709349 1.851782 7.8323462e-39
0.8682797 -0.46751931 1.8514844 6.5419591e-39
-0.89246869 -0.8192212 2.3195982 6.0806082e-39
0.0020001 -0.58398241 1.8546695 4.1452539e-39
0.32817879 -0.57432681 2.0015821 1.1609478e-38
0.34278929 -0.57225621 2.0047307 7.6468745e-39
0.46044049 -0.55101353 1.9767216 9.3045938e-39
-0.083554402 -0.59170669 1.8600676 3.3158323e-39
0.0392677 -0.58235341 1.8828893 7.4635973e-39
0.4084686 -0.55773199 1.9898193 1.2162279e-38
0.7081672 -0.49778309 1.9046512 1.1702754e-38
0.93562549 -0.4476766 1.827749 7.0922574e-39
-0.95186222 -0.82902068 2.3739774 1.1977538e-38
-0.0023568 -0.58481812 1.8772556 5.8966135e-39
0.0271444 -0.56987637 1.8436641 4.6969913e-39
0.32982579 -0.5660072 1.9935775 7.644348e-39
-1.6879026 -0.96651101 2.5441663 1.8054831e-38
-0.51973599 -0.69723439 2.0634663 9.8588452e-39
-0.072894603 -0.58588552 1.8656175 2.6708314e-39
0.89892739 -0.45192799 1.8507899 6.4476012e-39
-0.043662801 -0.57581568 1.8511698 3.3154848e-39
-1.1880662 -0.85684812 2.4109762 7.6454144e-39
0.039450198 -0.572712 1.9033805 3.1325383e-39
0.39700109 -0.54740179 1.9855008 1.3083876e-38
1.0059339 -0.42248371 1.8073953 1.1241059e-38
-0.75323433 -0.76743728 2.2913313 1.1703122e-38
-0.074844703 -0.57854009 1.8697592 5.8058598e-39
-0.052526802 -0.57718247 1.8768131 6.4494313e-39
-1.1175835 -0.83395982 2.3943107 5.896947e-39
0.825495 -0.4533405 1.8574371 6.7263672e-39
-1.214422 -0.85309988 2.4238923 6.5419591e-39
-0.5291245 -0.67471403 2.052726 3.0392622e-39
0.28785691 -0.52330339 1.8722743 3.6857204e-39
0.89412087 -0.43832251 1.8421893 1.1057025e-38
-1.087153 -0.82236367 2.3825462 7.3681128e-39
0.0380922 -0.5593546 1.8910695 7.1877237e-39
0.52086711 -0.51337439 1.9534233 1.0872636e-38
0.66986918 -0.47908241 1.9064853 1.1796393e-38
0.98356253 -0.4195393 1.8270541 1.0502414e-38
-1.3294177 -0.86706698 2.4517083 6.2657295e-39
-1.1446348 -0.82805473 2.400259 1.0780083e-38
-1.1146178 -0.82675588 2.3892329 7.001138e-39
0.78555191 -0.4550288 1.8772343 8.6603062e-39
1.2414938 -0.43352211 2.0534253 1.7687132e-38
0.022135399 -0.55108428 1.8822603 5.9891679e-39
0.28998879 -0.54325992 1.9771461 6.0820922e-39
1.0116247 -0.40922669 1.8114887 1.1886425e-38
-1.9247326 -0.96239269 2.5711527 1.3538334e-38
-0.064597897 -0.55492049 1.862766 7.3710135e-39
0.33243781 -0.53577322 2.0057125 1.1518005e-38
0.2906124 -0.50743657 1.8544869 4.8831888e-39
0.67997712 -0.46379301 1.8917923 1.0321631e-38
0.7424525 -0.45291609 1.8746064 1.0318734e-38
-1.3908437 -0.84735 2.4481177 7.8298154e-39
-0.34732249 -0.6061812 1.9649214 6.0799215e-39
0.3518019 -0.51965278 1.9885809 1.1796751e-38
0.4721798 -0.4979147 1.9595686 1.1703118e-38
-0.36158121 -0.59738278 1.9503767 3.6842757e-39
-0.33762521 -0.59064782 1.9315948 8.4766618e-39
-0.040175699 -0.539639 1.8680547 8.9372812e-39
0.0045783999 -0.53056771 1.8539602 3.7771944e-39
0.3684724 -0.51282448 1.9846805 9.2145646e-39
0.99757701 -0.39570621 1.8122422 9.3038735e-39
-1.0869102 -0.78203678 2.3824556 7.9230844e-39
0.47142071 -0.49015459 1.9506699 8.4762764e-39
0.028287601 -0.53503209 1.9108548 3.2240276e-39
0.92850792 -0.40342289 1.8314584 9.7644943e-39
0.9726615 -0.39462429 1.8145686 8.1993322e-39
1.1087661 -0.38731459 1.8574497 9.7651964e-39
-0.2046293 -0.57282871 1.9704171 2.8563031e-39
0.36556029 -0.5052703 1.9827137 1.1427972e-38
0.52898782 -0.47411731 1.9411482 7.6465102e-39
0.65437591 -0.4496496 1.9097919 1.3175706e-38
1.0588984 -0.37457541 1.7966182 1.1794597e-38
0.51726061 -0.47347829 1.9512358 8.2911607e-39
0.67399383 -0.4426471 1.9043314 1.004107e-38
0.90619868 -0.40201369 1.8454397 1.243924e-38
-1.343498 -0.80671853 2.4486628 4.5140041e-39
-0.3271468 -0.56861401 1.9247851 7.1877209e-39
-0.28207979 -0.58256727 2.02298 3.870462e-39
0.090149201 -0.51941651 1.9490404 2.856673e-39
0.36728641 -0.49318469 1.9871966 1.1612003e-38
0.7376591 -0.42492831 1.882539 1.2529626e-38
-1.4125226 -0.81629437 2.479193 7.2780808e-39
-0.31335989 -0.56545937 1.9538121 2.7651907e-39
-0.054527201 -0.516442 1.8796532 7.4643161e-39
0.4038718 -0.48277789 1.9763255 8.8425352e-39
0.5480758 -0.4553282 1.9417282 1.0224733e-38
0.61938947 -0.44521591 1.9199711 9.5797177e-39
-1.4474241 -0.8100633 2.4667706 6.3553958e-39
-1.2950985 -0.77110428 2.3770514 1.1059185e-38
-0.17752521 -0.5403325 1.9426959 6.2639499e-39
0.1968493 -0.4805716 1.8635597 3.7768161e-39
-1.4897729 -0.81124723 2.4672585 6.9093011e-39
-1.4743547 -0.81060189 2.4697473 7.0940511e-39
0.0252074 -0.50780141 1.9005973 2.6719286e-39
0.2167839 -0.4785727 1.8744856 2.6722874e-39
0.35351041 -0.4878042 1.9898859 8.2004154e-39
-1.1126909 -0.7454747 2.3870683 7.2769976e-39
0.495776 -0.4581072 1.9534892 7.369189e-39
-1.6728653 -0.83423209 2.5201335 1.5657755e-38
-1.5339539 -0.8069824 2.4696715 7.9227383e-39
0.50384611 -0.45556089 1.9555215 8.1053177e-39
0.47350761 -0.4563379 1.9612713 6.2639246e-39
-1.3516673 -0.76755762 2.4245956 8.3833521e-39
-1.3334254 -0.76651311 2.4294279 1.1887502e-38
-0.9427458 -0.69864929 2.3313224 1.2070086e-38
-0.6545313 -0.62869018 2.127476 7.4643232e-39
0.46145791 -0.45808759 1.9710599 6.9078605e-39
0.49647719 -0.4501484 1.9517933 1.3544131e-38
0.84003341 -0.38839909 1.852703 1.1517646e-38
0.36215019 -0.46664071 1.9802306 6.7260014e-39
0.95495588 -0.36474401 1.8203861 1.1609102e-38
-1.6356559 -0.81272978 2.5301356 8.1989539e-39
-1.0909981 -0.71385741 2.3751488 5.5259967e-39
-0.2094413 -0.5264076 1.9513851 8.9379889e-39
0.0196149 -0.48056659 1.8562549 9.2149555e-39
0.39561161 -0.461041 1.9803118 7.5535971e-39
0.45460349 -0.44885311 1.9523015 1.2255196e-38
0.90934712 -0.36741421 1.821999 1.0688603e-38
-1.1264372 -0.71650851 2.3775842 5.9851699e-39
-0.67902118 -0.61457711 2.0871623 8.569205e-39
-0.59950411 -0.58619618 2.0475571 5.3445341e-39
0.96635431 -0.3571879 1.8124028 6.4472481e-39
-0.40620869 -0.54581082 1.9744184 3.5013264e-39
0.0212187 -0.48127261 1.8865477 7.6483501e-39
-1.3259668 -0.74466503 2.4484792 7.0936909e-39
-1.1292131 -0.7092728 2.3814113 1.0412364e-38
-0.92389518 -0.64636862 2.1715393 1.0873715e-38
-0.9595868 -0.68228549 2.3403895 1.0506012e-38
1.0609698 -0.33800921 1.7967623 1.0873003e-38
-0.13389251 -0.5023787 1.9598027 5.252693e-39
0.28620079 -0.47652999 1.9860256 5.8980302e-39
-1.0644954 -0.69882357 2.4209552 7.5568369e-39
0.25444239 -0.4705576 2.0065439 2.8562961e-39
-0.96945733 -0.6722064 2.3529961 6.080618e-39
0.86633641 -0.36254659 1.8439962 6.8174712e-39
-0.91977477 -0.65946323 2.3214369 9.6733651e-39
-0.2114263 -0.50369132 1.9605291 4.1470531e-39
0.0119443 -0.45949191 1.8503067 3.5013278e-39
-0.96919549 -0.6598894 2.3525786 1.1333254e-38
-0.25230771 -0.5073517 1.97805 3.3151232e-39
0.83888072 -0.35952839 1.8506637 4.5114916e-39
1.0512908 -0.32454041 1.7932383 1.0043962e-38
-1.5340021 -0.73875892 2.4817774 1.0596772e-38
